-416.000000 1184.000000 56.000000
-416.000000 1183.866962 57.995570
-416.000000 1183.733924 59.991141
-416.000000 1183.600886 61.986711
-416.000000 1183.467848 63.982281
-416.000000 1183.334810 65.977852
-416.000000 1183.201772 67.973422
-416.000000 1183.068734 69.968992
-416.000000 1182.935696 71.964563
-416.000000 1182.802658 73.960133
-416.000000 1182.669620 75.955703
-416.000000 1182.536582 77.951273
-416.000000 1182.403544 79.946844
-416.000000 1182.270506 81.942414
-416.000000 1182.137468 83.937984
-416.000000 1182.004430 85.933555
-416.000000 1181.871392 87.929125
-416.000000 1181.738354 89.924695
-416.000000 1181.605316 91.920266
-416.000000 1181.472278 93.915836
-416.000000 1181.339240 95.911406
-416.000000 1181.206202 97.906977
-416.000000 1181.073164 99.902547
-416.000000 1180.940126 101.898117
-416.000000 1180.807087 103.893688
-416.000000 1180.674049 105.889258
-416.000000 1180.541011 107.884828
-416.000000 1180.407973 109.880399
-416.000000 1180.274935 111.875969
-416.000000 1180.141897 113.871539
-416.000000 1180.008859 115.867109
-416.000000 1179.875821 117.862680
-416.000000 1179.742783 119.858250
-416.000000 1179.609745 121.853820
-416.000000 1179.476707 123.849391
-416.000000 1179.343669 125.844961
-416.000000 1179.210631 127.840531
-416.000000 1179.077593 129.836102
-416.000000 1178.944555 131.831672
-416.000000 1178.811517 133.827242
-416.000000 1178.678479 135.822813
-416.000000 1178.545441 137.818383
-416.000000 1178.412403 139.813953
-416.000000 1178.279365 141.809524
-416.000000 1178.146327 143.805094
-416.000000 1178.013289 145.800664
-416.000000 1177.880251 147.796235
-416.000000 1177.747213 149.791805
-416.000000 1177.614175 151.787375
-416.000000 1177.481137 153.782945
-416.000000 1177.348099 155.778516
-416.000000 1177.215061 157.774086
-416.000000 1177.082023 159.769656
-416.000000 1176.948985 161.765227
-416.000000 1176.815947 163.760797
-416.000000 1176.682909 165.756367
-416.000000 1176.549871 167.751938
-416.000000 1176.416833 169.747508
-416.000000 1176.283795 171.743078
-416.000000 1176.150757 173.738649
-416.000000 1176.000000 176.000000
-415.118040 1175.301782 177.653674
-414.236081 1174.603564 179.307349
-413.354121 1173.905346 180.961023
-412.472161 1173.207128 182.614697
-411.590202 1172.508910 184.268372
-410.708242 1171.810692 185.922046
-409.826283 1171.112474 187.575720
-408.944323 1170.414256 189.229395
-408.062363 1169.716038 190.883069
-407.180404 1169.017820 192.536743
-406.298444 1168.319601 194.190418
-405.416484 1167.621383 195.844092
-404.534525 1166.923165 197.497766
-403.652565 1166.224947 199.151440
-402.770605 1165.526729 200.805115
-401.888646 1164.828511 202.458789
-401.006686 1164.130293 204.112463
-400.124727 1163.432075 205.766138
-399.242767 1162.733857 207.419812
-398.360807 1162.035639 209.073486
-397.478848 1161.337421 210.727161
-396.596888 1160.639203 212.380835
-395.714928 1159.940985 214.034509
-394.832969 1159.242767 215.688184
-393.951009 1158.544549 217.341858
-393.069049 1157.846331 218.995532
-392.187090 1157.148113 220.649207
-391.305130 1156.449895 222.302881
-390.423171 1155.751677 223.956555
-389.541211 1155.053459 225.610230
-388.659251 1154.355241 227.263904
-387.777292 1153.657023 228.917578
-386.895332 1152.958804 230.571253
-386.013372 1152.260586 232.224927
-385.131413 1151.562368 233.878601
-384.249453 1150.864150 235.532276
-383.367493 1150.165932 237.185950
-382.485534 1149.467714 238.839624
-381.603574 1148.769496 240.493298
-380.721615 1148.071278 242.146973
-379.839655 1147.373060 243.800647
-378.957695 1146.674842 245.454321
-378.075736 1145.976624 247.107996
-377.193776 1145.278406 248.761670
-376.311816 1144.580188 250.415344
-375.429857 1143.881970 252.069019
-374.547897 1143.183752 253.722693
-373.665937 1142.485534 255.376367
-372.783978 1141.787316 257.030042
-371.902018 1141.089098 258.683716
-371.020058 1140.390880 260.337390
-370.138099 1139.692662 261.991065
-369.256139 1138.994444 263.644739
-368.374180 1138.296225 265.298413
-367.492220 1137.598007 266.952088
-366.610260 1136.899789 268.605762
-365.728301 1136.201571 270.259436
-364.846341 1135.503353 271.913111
-363.964381 1134.805135 273.566785
-363.082422 1134.106917 275.220459
-362.200462 1133.408699 276.874134
-361.318502 1132.710481 278.527808
-360.436543 1132.012263 280.181482
-359.554583 1131.314045 281.835156
-358.672624 1130.615827 283.488831
-357.790664 1129.917609 285.142505
-356.908704 1129.219391 286.796179
-356.026745 1128.521173 288.449854
-355.144785 1127.822955 290.103528
-354.262825 1127.124737 291.757202
-353.380866 1126.426519 293.410877
-352.498906 1125.728301 295.064551
-351.616946 1125.030083 296.718225
-350.734987 1124.331865 298.371900
-349.853027 1123.633647 300.025574
-348.971068 1122.935428 301.679248
-348.089108 1122.237210 303.332923
-347.207148 1121.538992 304.986597
-346.325189 1120.840774 306.640271
-345.443229 1120.142556 308.293946
-344.561269 1119.444338 309.947620
-343.679310 1118.746120 311.601294
-342.797350 1118.047902 313.254969
-341.915390 1117.349684 314.908643
-341.033431 1116.651466 316.562317
-340.151471 1115.953248 318.215992
-339.269512 1115.255030 319.869666
-338.387552 1114.556812 321.523340
-337.505592 1113.858594 323.177015
-336.623633 1113.160376 324.830689
-335.741673 1112.462158 326.484363
-334.859713 1111.763940 328.138037
-333.977754 1111.065722 329.791712
-333.095794 1110.367504 331.445386
-332.213834 1109.669286 333.099060
-331.331875 1108.971068 334.752735
-330.449915 1108.272850 336.406409
-329.567956 1107.574631 338.060083
-328.685996 1106.876413 339.713758
-327.804036 1106.178195 341.367432
-326.922077 1105.479977 343.021106
-326.040117 1104.781759 344.674781
-325.158157 1104.083541 346.328455
-324.276198 1103.385323 347.982129
-323.394238 1102.687105 349.635804
-322.512278 1101.988887 351.289478
-321.630319 1101.290669 352.943152
-320.748359 1100.592451 354.596827
-319.866400 1099.894233 356.250501
-318.984440 1099.196015 357.904175
-318.102480 1098.497797 359.557850
-317.220521 1097.799579 361.211524
-316.338561 1097.101361 362.865198
-315.456601 1096.403143 364.518873
-314.574642 1095.704925 366.172547
-313.692682 1095.006707 367.826221
-312.810722 1094.308489 369.479895
-311.928763 1093.610271 371.133570
-311.046803 1092.912052 372.787244
-310.164844 1092.213834 374.440918
-309.282884 1091.515616 376.094593
-308.400924 1090.817398 377.748267
-307.518965 1090.119180 379.401941
-306.637005 1089.420962 381.055616
-305.755045 1088.722744 382.709290
-304.873086 1088.024526 384.362964
-303.991126 1087.326308 386.016639
-303.109166 1086.628090 387.670313
-302.227207 1085.929872 389.323987
-301.345247 1085.231654 390.977662
-300.463287 1084.533436 392.631336
-299.581328 1083.835218 394.285010
-298.699368 1083.137000 395.938685
-297.817409 1082.438782 397.592359
-296.935449 1081.740564 399.246033
-296.053489 1081.042346 400.899708
-295.171530 1080.344128 402.553382
-294.289570 1079.645910 404.207056
-293.407610 1078.947692 405.860731
-292.525651 1078.249474 407.514405
-291.643691 1077.551255 409.168079
-290.761731 1076.853037 410.821753
-289.879772 1076.154819 412.475428
-288.997812 1075.456601 414.129102
-288.115853 1074.758383 415.782776
-287.233893 1074.060165 417.436451
-286.351933 1073.361947 419.090125
-285.469974 1072.663729 420.743799
-284.588014 1071.965511 422.397474
-283.706054 1071.267293 424.051148
-282.824095 1070.569075 425.704822
-281.942135 1069.870857 427.358497
-281.060175 1069.172639 429.012171
-280.178216 1068.474421 430.665845
-279.296256 1067.776203 432.319520
-278.414297 1067.077985 433.973194
-277.532337 1066.379767 435.626868
-276.650377 1065.681549 437.280543
-275.768418 1064.983331 438.934217
-274.886458 1064.285113 440.587891
-274.004498 1063.586895 442.241566
-273.122539 1062.888676 443.895240
-272.240579 1062.190458 445.548914
-271.358619 1061.492240 447.202589
-270.476660 1060.794022 448.856263
-269.594700 1060.095804 450.509937
-268.712741 1059.397586 452.163611
-267.830781 1058.699368 453.817286
-266.948821 1058.001150 455.470960
-266.066862 1057.302932 457.124634
-265.184902 1056.604714 458.778309
-264.302942 1055.906496 460.431983
-263.420983 1055.208278 462.085657
-262.539023 1054.510060 463.739332
-261.657063 1053.811842 465.393006
-260.775104 1053.113624 467.046680
-259.893144 1052.415406 468.700355
-259.011185 1051.717188 470.354029
-258.129225 1051.018970 472.007703
-257.247265 1050.320752 473.661378
-256.365306 1049.622534 475.315052
-255.483346 1048.924316 476.968726
-254.601386 1048.226098 478.622401
-253.719427 1047.527879 480.276075
-252.837467 1046.829661 481.929749
-251.955507 1046.131443 483.583424
-251.073548 1045.433225 485.237098
-250.191588 1044.735007 486.890772
-249.309629 1044.036789 488.544447
-248.427669 1043.338571 490.198121
-247.545709 1042.640353 491.851795
-246.663750 1041.942135 493.505469
-245.781790 1041.243917 495.159144
-244.899830 1040.545699 496.812818
-244.017871 1039.847481 498.466492
-243.135911 1039.149263 500.120167
-242.253951 1038.451045 501.773841
-241.371992 1037.752827 503.427515
-240.490032 1037.054609 505.081190
-239.608073 1036.356391 506.734864
-238.726113 1035.658173 508.388538
-237.844153 1034.959955 510.042213
-236.962194 1034.261737 511.695887
-236.080234 1033.563519 513.349561
-235.198274 1032.865300 515.003236
-234.316315 1032.167082 516.656910
-233.434355 1031.468864 518.310584
-232.552395 1030.770646 519.964259
-231.670436 1030.072428 521.617933
-230.788476 1029.374210 523.271607
-229.906516 1028.675992 524.925282
-229.024557 1027.977774 526.578956
-228.142597 1027.279556 528.232630
-227.260638 1026.581338 529.886305
-226.378678 1025.883120 531.539979
-225.496718 1025.184902 533.193653
-224.000000 1024.000000 536.000000
-224.000000 1022.000000 536.000000
-224.000000 1020.000000 536.000000
-224.000000 1018.000000 536.000000
-224.000000 1016.000000 536.000000
-224.000000 1014.000000 536.000000
-224.000000 1012.000000 536.000000
-224.000000 1010.000000 536.000000
-224.000000 1008.000000 536.000000
-224.000000 1006.000000 536.000000
-224.000000 1004.000000 536.000000
-224.000000 1002.000000 536.000000
-224.000000 1000.000000 536.000000
-224.000000 998.000000 536.000000
-224.000000 996.000000 536.000000
-224.000000 994.000000 536.000000
-224.000000 992.000000 536.000000
-224.000000 990.000000 536.000000
-224.000000 988.000000 536.000000
-224.000000 986.000000 536.000000
-224.000000 984.000000 536.000000
-224.000000 982.000000 536.000000
-224.000000 980.000000 536.000000
-224.000000 978.000000 536.000000
-224.000000 976.000000 536.000000
-224.000000 974.000000 536.000000
-224.000000 972.000000 536.000000
-224.000000 970.000000 536.000000
-224.000000 968.000000 536.000000
-224.000000 966.000000 536.000000
-224.000000 964.000000 536.000000
-224.000000 962.000000 536.000000
-224.000000 960.000000 536.000000
-224.000000 958.000000 536.000000
-224.000000 956.000000 536.000000
-224.000000 954.000000 536.000000
-224.000000 952.000000 536.000000
-224.000000 950.000000 536.000000
-224.000000 948.000000 536.000000
-224.000000 946.000000 536.000000
-224.000000 944.000000 536.000000
-224.000000 942.000000 536.000000
-224.000000 940.000000 536.000000
-224.000000 938.000000 536.000000
-224.000000 936.000000 536.000000
-224.000000 934.000000 536.000000
-224.000000 932.000000 536.000000
-224.000000 930.000000 536.000000
-224.000000 928.000000 536.000000
-224.000000 926.000000 536.000000
-224.000000 924.000000 536.000000
-224.000000 922.000000 536.000000
-224.000000 920.000000 536.000000
-224.000000 918.000000 536.000000
-224.000000 916.000000 536.000000
-224.000000 914.000000 536.000000
-224.000000 912.000000 536.000000
-224.000000 910.000000 536.000000
-224.000000 908.000000 536.000000
-224.000000 906.000000 536.000000
-224.000000 904.000000 536.000000
-224.000000 902.000000 536.000000
-224.000000 900.000000 536.000000
-224.000000 898.000000 536.000000
-224.000000 896.000000 536.000000
-224.000000 894.000000 536.000000
-224.000000 892.000000 536.000000
-224.000000 890.000000 536.000000
-224.000000 888.000000 536.000000
-224.000000 886.000000 536.000000
-224.000000 884.000000 536.000000
-224.000000 882.000000 536.000000
-224.000000 880.000000 536.000000
-224.000000 878.000000 536.000000
-224.000000 876.000000 536.000000
-224.000000 874.000000 536.000000
-224.000000 872.000000 536.000000
-224.000000 870.000000 536.000000
-224.000000 868.000000 536.000000
-224.000000 866.000000 536.000000
-224.000000 864.000000 536.000000
-224.000000 862.000000 536.000000
-224.000000 860.000000 536.000000
-224.000000 858.000000 536.000000
-224.000000 856.000000 536.000000
-224.000000 854.000000 536.000000
-224.000000 852.000000 536.000000
-224.000000 850.000000 536.000000
-224.000000 848.000000 536.000000
-224.000000 846.000000 536.000000
-224.000000 844.000000 536.000000
-224.000000 842.000000 536.000000
-224.000000 840.000000 536.000000
-224.000000 838.000000 536.000000
-224.000000 836.000000 536.000000
-224.000000 834.000000 536.000000
-224.000000 832.000000 536.000000
-224.000000 830.000000 536.000000
-224.000000 828.000000 536.000000
-224.000000 826.000000 536.000000
-224.000000 824.000000 536.000000
-224.000000 822.000000 536.000000
-224.000000 820.000000 536.000000
-224.000000 818.000000 536.000000
-224.000000 816.000000 536.000000
-224.000000 814.000000 536.000000
-224.000000 812.000000 536.000000
-224.000000 810.000000 536.000000
-224.000000 808.000000 536.000000
-224.000000 806.000000 536.000000
-224.000000 804.000000 536.000000
-224.000000 802.000000 536.000000
-224.000000 800.000000 536.000000
-224.000000 798.000000 536.000000
-224.000000 796.000000 536.000000
-224.000000 794.000000 536.000000
-224.000000 792.000000 536.000000
-224.000000 790.000000 536.000000
-224.000000 788.000000 536.000000
-224.000000 786.000000 536.000000
-224.000000 784.000000 536.000000
-224.000000 782.000000 536.000000
-224.000000 780.000000 536.000000
-224.000000 778.000000 536.000000
-224.000000 776.000000 536.000000
-224.000000 774.000000 536.000000
-224.000000 772.000000 536.000000
-224.000000 770.000000 536.000000
-224.000000 768.000000 536.000000
-224.000000 766.000000 536.000000
-224.000000 764.000000 536.000000
-224.000000 762.000000 536.000000
-224.000000 760.000000 536.000000
-224.000000 758.000000 536.000000
-224.000000 756.000000 536.000000
-224.000000 754.000000 536.000000
-224.000000 752.000000 536.000000
-224.000000 750.000000 536.000000
-224.000000 748.000000 536.000000
-224.000000 746.000000 536.000000
-224.000000 744.000000 536.000000
-224.000000 742.000000 536.000000
-224.000000 740.000000 536.000000
-224.000000 738.000000 536.000000
-224.000000 736.000000 536.000000
-224.000000 734.000000 536.000000
-224.000000 732.000000 536.000000
-224.000000 730.000000 536.000000
-224.000000 728.000000 536.000000
-224.000000 726.000000 536.000000
-224.000000 724.000000 536.000000
-224.000000 722.000000 536.000000
-224.000000 720.000000 536.000000
-224.000000 718.000000 536.000000
-224.000000 716.000000 536.000000
-224.000000 714.000000 536.000000
-224.000000 712.000000 536.000000
-224.000000 710.000000 536.000000
-224.000000 708.000000 536.000000
-224.000000 706.000000 536.000000
-224.000000 704.000000 536.000000
-224.000000 702.000000 536.000000
-224.000000 700.000000 536.000000
-224.000000 698.000000 536.000000
-224.000000 696.000000 536.000000
-224.000000 694.000000 536.000000
-224.000000 692.000000 536.000000
-224.000000 690.000000 536.000000
-224.000000 688.000000 536.000000
-224.000000 686.000000 536.000000
-224.000000 684.000000 536.000000
-224.000000 682.000000 536.000000
-224.000000 680.000000 536.000000
-224.000000 678.000000 536.000000
-224.000000 676.000000 536.000000
-224.000000 674.000000 536.000000
-224.000000 672.000000 536.000000
-224.000000 670.000000 536.000000
-224.000000 668.000000 536.000000
-224.000000 666.000000 536.000000
-224.000000 664.000000 536.000000
-224.000000 662.000000 536.000000
-224.000000 660.000000 536.000000
-224.000000 658.000000 536.000000
-224.000000 656.000000 536.000000
-224.000000 654.000000 536.000000
-224.000000 652.000000 536.000000
-224.000000 650.000000 536.000000
-224.000000 648.000000 536.000000
-224.000000 646.000000 536.000000
-224.000000 644.000000 536.000000
-224.000000 642.000000 536.000000
-224.000000 640.000000 536.000000
-224.000000 638.000000 536.000000
-224.000000 636.000000 536.000000
-224.000000 634.000000 536.000000
-224.000000 632.000000 536.000000
-224.000000 630.000000 536.000000
-224.000000 628.000000 536.000000
-224.000000 626.000000 536.000000
-224.000000 624.000000 536.000000
-224.000000 622.000000 536.000000
-224.000000 620.000000 536.000000
-224.000000 618.000000 536.000000
-224.000000 616.000000 536.000000
-224.000000 614.000000 536.000000
-224.000000 612.000000 536.000000
-224.000000 610.000000 536.000000
-224.000000 608.000000 536.000000
-224.000000 606.000000 536.000000
-224.000000 604.000000 536.000000
-224.000000 602.000000 536.000000
-224.000000 600.000000 536.000000
-224.000000 598.000000 536.000000
-224.000000 596.000000 536.000000
-224.000000 594.000000 536.000000
-224.000000 592.000000 536.000000
-224.000000 590.000000 536.000000
-224.000000 588.000000 536.000000
-224.000000 586.000000 536.000000
-224.000000 584.000000 536.000000
-224.000000 582.000000 536.000000
-224.000000 580.000000 536.000000
-224.000000 578.000000 536.000000
-224.000000 576.000000 536.000000
-224.000000 574.000000 536.000000
-224.000000 572.000000 536.000000
-224.000000 570.000000 536.000000
-224.000000 568.000000 536.000000
-224.000000 566.000000 536.000000
-224.000000 564.000000 536.000000
-224.000000 562.000000 536.000000
-224.000000 560.000000 536.000000
-224.000000 558.000000 536.000000
-224.000000 556.000000 536.000000
-224.000000 554.000000 536.000000
-224.000000 552.000000 536.000000
-224.000000 550.000000 536.000000
-224.000000 548.000000 536.000000
-224.000000 546.000000 536.000000
-224.000000 544.000000 536.000000
-224.000000 542.000000 536.000000
-224.000000 540.000000 536.000000
-224.000000 538.000000 536.000000
-224.000000 536.000000 536.000000
-224.000000 534.000000 536.000000
-224.000000 532.000000 536.000000
-224.000000 530.000000 536.000000
-224.000000 528.000000 536.000000
-224.000000 526.000000 536.000000
-224.000000 524.000000 536.000000
-224.000000 522.000000 536.000000
-224.000000 520.000000 536.000000
-224.000000 518.000000 536.000000
-224.000000 516.000000 536.000000
-224.000000 514.000000 536.000000
-224.000000 512.000000 536.000000
-224.000000 510.000000 536.000000
-224.000000 508.000000 536.000000
-224.000000 506.000000 536.000000
-224.000000 504.000000 536.000000
-224.000000 502.000000 536.000000
-224.000000 500.000000 536.000000
-224.000000 498.000000 536.000000
-224.000000 496.000000 536.000000
-224.000000 494.000000 536.000000
-224.000000 492.000000 536.000000
-224.000000 490.000000 536.000000
-224.000000 488.000000 536.000000
-224.000000 486.000000 536.000000
-224.000000 484.000000 536.000000
-224.000000 482.000000 536.000000
-224.000000 480.000000 536.000000
-224.000000 478.000000 536.000000
-224.000000 476.000000 536.000000
-224.000000 474.000000 536.000000
-224.000000 472.000000 536.000000
-224.000000 470.000000 536.000000
-224.000000 468.000000 536.000000
-224.000000 466.000000 536.000000
-224.000000 464.000000 536.000000
-224.000000 462.000000 536.000000
-224.000000 460.000000 536.000000
-224.000000 458.000000 536.000000
-224.000000 456.000000 536.000000
-224.000000 454.000000 536.000000
-224.000000 452.000000 536.000000
-224.000000 450.000000 536.000000
-224.000000 448.000000 536.000000
-224.000000 446.000000 536.000000
-224.000000 444.000000 536.000000
-224.000000 442.000000 536.000000
-224.000000 440.000000 536.000000
-224.000000 438.000000 536.000000
-224.000000 436.000000 536.000000
-224.000000 434.000000 536.000000
-224.000000 432.000000 536.000000
-224.000000 430.000000 536.000000
-224.000000 428.000000 536.000000
-224.000000 426.000000 536.000000
-224.000000 424.000000 536.000000
-224.000000 422.000000 536.000000
-224.000000 420.000000 536.000000
-224.000000 418.000000 536.000000
-224.000000 416.000000 536.000000
-224.000000 414.000000 536.000000
-224.000000 412.000000 536.000000
-224.000000 410.000000 536.000000
-224.000000 408.000000 536.000000
-224.000000 406.000000 536.000000
-224.000000 404.000000 536.000000
-224.000000 402.000000 536.000000
-224.000000 400.000000 536.000000
-224.000000 398.000000 536.000000
-224.000000 396.000000 536.000000
-224.000000 394.000000 536.000000
-224.000000 392.000000 536.000000
-224.000000 390.000000 536.000000
-224.000000 388.000000 536.000000
-224.000000 386.000000 536.000000
-224.000000 384.000000 536.000000
-224.000000 382.000000 536.000000
-224.000000 380.000000 536.000000
-224.000000 376.000000 536.000000
-224.824564 374.177887 536.000000
-225.649127 372.355775 536.000000
-226.473691 370.533662 536.000000
-227.298255 368.711549 536.000000
-228.122818 366.889436 536.000000
-228.947382 365.067324 536.000000
-229.771946 363.245211 536.000000
-230.596509 361.423098 536.000000
-231.421073 359.600986 536.000000
-232.245637 357.778873 536.000000
-233.070200 355.956760 536.000000
-233.894764 354.134647 536.000000
-234.719328 352.312535 536.000000
-235.543891 350.490422 536.000000
-236.368455 348.668309 536.000000
-237.193019 346.846197 536.000000
-238.017582 345.024084 536.000000
-238.842146 343.201971 536.000000
-239.666710 341.379858 536.000000
-240.491273 339.557746 536.000000
-241.315837 337.735633 536.000000
-242.140401 335.913520 536.000000
-242.964964 334.091407 536.000000
-243.789528 332.269295 536.000000
-244.614092 330.447182 536.000000
-245.438655 328.625069 536.000000
-246.263219 326.802957 536.000000
-247.087783 324.980844 536.000000
-247.912346 323.158731 536.000000
-248.736910 321.336618 536.000000
-249.561474 319.514506 536.000000
-250.386037 317.692393 536.000000
-251.210601 315.870280 536.000000
-252.035165 314.048168 536.000000
-252.859728 312.226055 536.000000
-253.684292 310.403942 536.000000
-254.508856 308.581829 536.000000
-255.333419 306.759717 536.000000
-256.157983 304.937604 536.000000
-256.982547 303.115491 536.000000
-257.807110 301.293379 536.000000
-258.631674 299.471266 536.000000
-259.456238 297.649153 536.000000
-260.280801 295.827040 536.000000
-261.105365 294.004928 536.000000
-261.929929 292.182815 536.000000
-262.754492 290.360702 536.000000
-263.579056 288.538590 536.000000
-264.403620 286.716477 536.000000
-265.228183 284.894364 536.000000
-266.052747 283.072251 536.000000
-266.877311 281.250139 536.000000
-267.701874 279.428026 536.000000
-268.526438 277.605913 536.000000
-269.351002 275.783800 536.000000
-270.175565 273.961688 536.000000
-271.000129 272.139575 536.000000
-271.824693 270.317462 536.000000
-272.649256 268.495350 536.000000
-273.473820 266.673237 536.000000
-274.298384 264.851124 536.000000
-275.122947 263.029011 536.000000
-275.947511 261.206899 536.000000
-276.772075 259.384786 536.000000
-277.596638 257.562673 536.000000
-278.421202 255.740561 536.000000
-279.245766 253.918448 536.000000
-280.070329 252.096335 536.000000
-280.894893 250.274222 536.000000
-281.719457 248.452110 536.000000
-282.544020 246.629997 536.000000
-283.368584 244.807884 536.000000
-284.193148 242.985772 536.000000
-285.017711 241.163659 536.000000
-285.842275 239.341546 536.000000
-286.666839 237.519433 536.000000
-287.491402 235.697321 536.000000
-288.315966 233.875208 536.000000
-289.140530 232.053095 536.000000
-289.965093 230.230983 536.000000
-290.789657 228.408870 536.000000
-291.614221 226.586757 536.000000
-292.438784 224.764644 536.000000
-293.263348 222.942532 536.000000
-294.087912 221.120419 536.000000
-294.912475 219.298306 536.000000
-295.737039 217.476193 536.000000
-296.561603 215.654081 536.000000
-297.386166 213.831968 536.000000
-298.210730 212.009855 536.000000
-299.035294 210.187743 536.000000
-299.859857 208.365630 536.000000
-300.684421 206.543517 536.000000
-301.508985 204.721404 536.000000
-302.333548 202.899292 536.000000
-303.158112 201.077179 536.000000
-303.982676 199.255066 536.000000
-304.807239 197.432954 536.000000
-305.631803 195.610841 536.000000
-306.456367 193.788728 536.000000
-307.280930 191.966615 536.000000
-308.105494 190.144503 536.000000
-308.930058 188.322390 536.000000
-309.754621 186.500277 536.000000
-310.579185 184.678165 536.000000
-311.403749 182.856052 536.000000
-312.228312 181.033939 536.000000
-313.052876 179.211826 536.000000
-313.877440 177.389714 536.000000
-314.702003 175.567601 536.000000
-315.526567 173.745488 536.000000
-316.351131 171.923376 536.000000
-317.175694 170.101263 536.000000
-318.000258 168.279150 536.000000
-318.824822 166.457037 536.000000
-319.649385 164.634925 536.000000
-320.473949 162.812812 536.000000
-321.298513 160.990699 536.000000
-322.123076 159.168586 536.000000
-322.947640 157.346474 536.000000
-323.772204 155.524361 536.000000
-324.596767 153.702248 536.000000
-325.421331 151.880136 536.000000
-326.245895 150.058023 536.000000
-327.070458 148.235910 536.000000
-327.895022 146.413797 536.000000
-328.719586 144.591685 536.000000
-329.544149 142.769572 536.000000
-330.368713 140.947459 536.000000
-331.193277 139.125347 536.000000
-332.017840 137.303234 536.000000
-332.842404 135.481121 536.000000
-333.666968 133.659008 536.000000
-334.491531 131.836896 536.000000
-335.316095 130.014783 536.000000
-336.140659 128.192670 536.000000
-336.965222 126.370558 536.000000
-337.789786 124.548445 536.000000
-338.614350 122.726332 536.000000
-339.438913 120.904219 536.000000
-340.263477 119.082107 536.000000
-341.088041 117.259994 536.000000
-341.912604 115.437881 536.000000
-342.737168 113.615769 536.000000
-343.561732 111.793656 536.000000
-344.386295 109.971543 536.000000
-345.210859 108.149430 536.000000
-346.035423 106.327318 536.000000
-346.859986 104.505205 536.000000
-347.684550 102.683092 536.000000
-348.509114 100.860979 536.000000
-349.333677 99.038867 536.000000
-350.158241 97.216754 536.000000
-350.982805 95.394641 536.000000
-351.807368 93.572529 536.000000
-352.631932 91.750416 536.000000
-353.456496 89.928303 536.000000
-354.281059 88.106190 536.000000
-355.105623 86.284078 536.000000
-355.930187 84.461965 536.000000
-356.754750 82.639852 536.000000
-357.579314 80.817740 536.000000
-358.403878 78.995627 536.000000
-359.228441 77.173514 536.000000
-360.053005 75.351401 536.000000
-360.877569 73.529289 536.000000
-361.702132 71.707176 536.000000
-362.526696 69.885063 536.000000
-363.351260 68.062951 536.000000
-364.175823 66.240838 536.000000
-365.000387 64.418725 536.000000
-365.824951 62.596612 536.000000
-366.649514 60.774500 536.000000
-367.474078 58.952387 536.000000
-368.298642 57.130274 536.000000
-369.123205 55.308162 536.000000
-369.947769 53.486049 536.000000
-370.772333 51.663936 536.000000
-371.596896 49.841823 536.000000
-372.421460 48.019711 536.000000
-373.246024 46.197598 536.000000
-374.070587 44.375485 536.000000
-374.895151 42.553373 536.000000
-375.719715 40.731260 536.000000
-376.544278 38.909147 536.000000
-377.368842 37.087034 536.000000
-378.193406 35.264922 536.000000
-379.017969 33.442809 536.000000
-379.842533 31.620696 536.000000
-380.667097 29.798583 536.000000
-381.491660 27.976471 536.000000
-382.316224 26.154358 536.000000
-383.140788 24.332245 536.000000
-383.965351 22.510133 536.000000
-384.789915 20.688020 536.000000
-385.614479 18.865907 536.000000
-386.439042 17.043794 536.000000
-387.263606 15.221682 536.000000
-388.088170 13.399569 536.000000
-388.912733 11.577456 536.000000
-389.737297 9.755344 536.000000
-390.561861 7.933231 536.000000
-391.386424 6.111118 536.000000
-392.210988 4.289005 536.000000
-393.035552 2.466893 536.000000
-393.860115 0.644780 536.000000
-394.684679 -1.177333 536.000000
-395.509243 -2.999445 536.000000
-396.333806 -4.821558 536.000000
-397.158370 -6.643671 536.000000
-397.982934 -8.465784 536.000000
-398.807497 -10.287896 536.000000
-399.632061 -12.110009 536.000000
-400.456625 -13.932122 536.000000
-401.281188 -15.754234 536.000000
-402.105752 -17.576347 536.000000
-402.930316 -19.398460 536.000000
-403.754879 -21.220573 536.000000
-404.579443 -23.042685 536.000000
-405.404007 -24.864798 536.000000
-406.228570 -26.686911 536.000000
-407.053134 -28.509024 536.000000
-407.877698 -30.331136 536.000000
-408.702261 -32.153249 536.000000
-409.526825 -33.975362 536.000000
-410.351389 -35.797474 536.000000
-411.175952 -37.619587 536.000000
-412.000516 -39.441700 536.000000
-412.825080 -41.263813 536.000000
-413.649643 -43.085925 536.000000
-414.474207 -44.908038 536.000000
-415.298771 -46.730151 536.000000
-416.123334 -48.552263 536.000000
-416.947898 -50.374376 536.000000
-417.772462 -52.196489 536.000000
-418.597025 -54.018602 536.000000
-419.421589 -55.840714 536.000000
-420.246153 -57.662827 536.000000
-421.070716 -59.484940 536.000000
-421.895280 -61.307052 536.000000
-422.719844 -63.129165 536.000000
-423.544407 -64.951278 536.000000
-424.368971 -66.773391 536.000000
-425.193535 -68.595503 536.000000
-426.018098 -70.417616 536.000000
-426.842662 -72.239729 536.000000
-427.667226 -74.061841 536.000000
-428.491789 -75.883954 536.000000
-429.316353 -77.706067 536.000000
-430.140917 -79.528180 536.000000
-430.965480 -81.350292 536.000000
-431.790044 -83.172405 536.000000
-432.614608 -84.994518 536.000000
-433.439171 -86.816631 536.000000
-434.263735 -88.638743 536.000000
-435.088299 -90.460856 536.000000
-435.912862 -92.282969 536.000000
-436.737426 -94.105081 536.000000
-437.561990 -95.927194 536.000000
-438.386553 -97.749307 536.000000
-439.211117 -99.571420 536.000000
-440.035681 -101.393532 536.000000
-440.860244 -103.215645 536.000000
-441.684808 -105.037758 536.000000
-442.509372 -106.859870 536.000000
-443.333935 -108.681983 536.000000
-444.158499 -110.504096 536.000000
-444.983063 -112.326209 536.000000
-445.807626 -114.148321 536.000000
-446.632190 -115.970434 536.000000
-447.456754 -117.792547 536.000000
-448.281317 -119.614659 536.000000
-449.105881 -121.436772 536.000000
-449.930445 -123.258885 536.000000
-450.755008 -125.080998 536.000000
-451.579572 -126.903110 536.000000
-452.404136 -128.725223 536.000000
-453.228699 -130.547336 536.000000
-454.053263 -132.369448 536.000000
-454.877827 -134.191561 536.000000
-455.702390 -136.013674 536.000000
-456.526954 -137.835787 536.000000
-457.351518 -139.657899 536.000000
-458.176081 -141.480012 536.000000
-459.000645 -143.302125 536.000000
-459.825209 -145.124238 536.000000
-460.649772 -146.946350 536.000000
-461.474336 -148.768463 536.000000
-462.298900 -150.590576 536.000000
-463.123463 -152.412688 536.000000
-463.948027 -154.234801 536.000000
-464.772591 -156.056914 536.000000
-465.597154 -157.879027 536.000000
-466.421718 -159.701139 536.000000
-467.246282 -161.523252 536.000000
-468.070845 -163.345365 536.000000
-468.895409 -165.167477 536.000000
-469.719973 -166.989590 536.000000
-470.544536 -168.811703 536.000000
-471.369100 -170.633816 536.000000
-472.193664 -172.455928 536.000000
-473.018227 -174.278041 536.000000
-473.842791 -176.100154 536.000000
-474.667355 -177.922266 536.000000
-475.491918 -179.744379 536.000000
-476.316482 -181.566492 536.000000
-477.141046 -183.388605 536.000000
-477.965609 -185.210717 536.000000
-478.790173 -187.032830 536.000000
-479.614737 -188.854943 536.000000
-480.439300 -190.677055 536.000000
-481.263864 -192.499168 536.000000
-482.088428 -194.321281 536.000000
-482.912991 -196.143394 536.000000
-483.737555 -197.965506 536.000000
-484.562119 -199.787619 536.000000
-485.386682 -201.609732 536.000000
-486.211246 -203.431845 536.000000
-487.035810 -205.253957 536.000000
-487.860373 -207.076070 536.000000
-488.684937 -208.898183 536.000000
-489.509501 -210.720295 536.000000
-490.334064 -212.542408 536.000000
-491.158628 -214.364521 536.000000
-491.983192 -216.186634 536.000000
-492.807755 -218.008746 536.000000
-493.632319 -219.830859 536.000000
-494.456883 -221.652972 536.000000
-495.281446 -223.475084 536.000000
-496.106010 -225.297197 536.000000
-496.930574 -227.119310 536.000000
-497.755137 -228.941423 536.000000
-498.579701 -230.763535 536.000000
-499.404265 -232.585648 536.000000
-500.228828 -234.407761 536.000000
-501.053392 -236.229873 536.000000
-501.877956 -238.051986 536.000000
-502.702519 -239.874099 536.000000
-503.527083 -241.696212 536.000000
-504.351647 -243.518324 536.000000
-505.176210 -245.340437 536.000000
-506.000774 -247.162550 536.000000
-506.825338 -248.984662 536.000000
-507.649901 -250.806775 536.000000
-508.474465 -252.628888 536.000000
-510.000000 -256.000000 536.000000
-510.000000 -257.364637 534.537889
-510.000000 -258.729273 533.075779
-510.000000 -260.093910 531.613668
-510.000000 -261.458546 530.151558
-510.000000 -262.823183 528.689447
-510.000000 -264.187819 527.227337
-510.000000 -265.552456 525.765226
-510.000000 -266.917092 524.303116
-510.000000 -268.281729 522.841005
-510.000000 -269.646365 521.378895
-510.000000 -271.011002 519.916784
-510.000000 -272.375638 518.454674
-510.000000 -273.740275 516.992563
-510.000000 -275.104911 515.530452
-510.000000 -276.469548 514.068342
-510.000000 -277.834184 512.606231
-510.000000 -279.198821 511.144121
-510.000000 -280.563457 509.682010
-510.000000 -281.928094 508.219900
-510.000000 -283.292730 506.757789
-510.000000 -284.657367 505.295679
-510.000000 -286.022003 503.833568
-510.000000 -287.386640 502.371458
-510.000000 -288.751276 500.909347
-510.000000 -290.115913 499.447237
-510.000000 -291.480549 497.985126
-510.000000 -292.845186 496.523016
-510.000000 -294.209822 495.060905
-510.000000 -295.574459 493.598794
-510.000000 -296.939095 492.136684
-510.000000 -298.303732 490.674573
-510.000000 -299.668368 489.212463
-510.000000 -301.033005 487.750352
-510.000000 -302.397641 486.288242
-510.000000 -303.762278 484.826131
-510.000000 -305.126914 483.364021
-510.000000 -306.491551 481.901910
-510.000000 -307.856187 480.439800
-510.000000 -309.220824 478.977689
-510.000000 -310.585460 477.515579
-510.000000 -311.950097 476.053468
-510.000000 -313.314733 474.591357
-510.000000 -314.679370 473.129247
-510.000000 -316.044006 471.667136
-510.000000 -317.408643 470.205026
-510.000000 -318.773279 468.742915
-510.000000 -320.137916 467.280805
-510.000000 -321.502552 465.818694
-510.000000 -322.867189 464.356584
-510.000000 -324.231825 462.894473
-510.000000 -325.596462 461.432363
-510.000000 -326.961098 459.970252
-510.000000 -328.325735 458.508142
-510.000000 -329.690371 457.046031
-510.000000 -331.055008 455.583920
-510.000000 -332.419644 454.121810
-510.000000 -333.784281 452.659699
-510.000000 -335.148917 451.197589
-510.000000 -336.513554 449.735478
-510.000000 -337.878190 448.273368
-510.000000 -339.242827 446.811257
-510.000000 -340.607463 445.349147
-510.000000 -341.972100 443.887036
-510.000000 -343.336736 442.424926
-510.000000 -344.701373 440.962815
-510.000000 -346.066009 439.500705
-510.000000 -347.430646 438.038594
-510.000000 -348.795282 436.576484
-510.000000 -350.159919 435.114373
-510.000000 -351.524555 433.652262
-510.000000 -352.889192 432.190152
-510.000000 -354.253828 430.728041
-510.000000 -355.618465 429.265931
-510.000000 -356.983101 427.803820
-510.000000 -358.347738 426.341710
-510.000000 -359.712374 424.879599
-510.000000 -361.077011 423.417489
-510.000000 -362.441647 421.955378
-510.000000 -363.806284 420.493268
-510.000000 -365.170920 419.031157
-510.000000 -366.535557 417.569047
-510.000000 -367.900193 416.106936
-510.000000 -369.264830 414.644825
-510.000000 -370.629466 413.182715
-510.000000 -371.994103 411.720604
-510.000000 -373.358739 410.258494
-510.000000 -374.723376 408.796383
-510.000000 -376.088012 407.334273
-510.000000 -377.452649 405.872162
-510.000000 -378.817285 404.410052
-510.000000 -380.181922 402.947941
-510.000000 -381.546558 401.485831
-510.000000 -382.911195 400.023720
-510.000000 -384.275831 398.561610
-510.000000 -385.640468 397.099499
-510.000000 -387.005104 395.637388
-510.000000 -388.369741 394.175278
-510.000000 -389.734377 392.713167
-510.000000 -391.099014 391.251057
-510.000000 -392.463650 389.788946
-510.000000 -393.828287 388.326836
-510.000000 -395.192923 386.864725
-510.000000 -396.557560 385.402615
-510.000000 -397.922196 383.940504
-510.000000 -399.286833 382.478394
-510.000000 -400.651469 381.016283
-510.000000 -402.016106 379.554173
-510.000000 -403.380742 378.092062
-510.000000 -404.745379 376.629952
-510.000000 -406.110015 375.167841
-510.000000 -407.474652 373.705730
-510.000000 -408.839288 372.243620
-510.000000 -410.203925 370.781509
-510.000000 -411.568561 369.319399
-510.000000 -412.933198 367.857288
-510.000000 -414.297834 366.395178
-510.000000 -415.662471 364.933067
-510.000000 -417.027107 363.470957
-510.000000 -418.391744 362.008846
-510.000000 -419.756380 360.546736
-510.000000 -421.121017 359.084625
-510.000000 -422.485653 357.622515
-510.000000 -423.850290 356.160404
-510.000000 -425.214926 354.698293
-510.000000 -426.579563 353.236183
-510.000000 -427.944199 351.774072
-510.000000 -429.308836 350.311962
-510.000000 -430.673472 348.849851
-510.000000 -432.038109 347.387741
-510.000000 -433.402745 345.925630
-510.000000 -434.767382 344.463520
-510.000000 -436.132018 343.001409
-510.000000 -437.496655 341.539299
-510.000000 -438.861291 340.077188
-510.000000 -440.225928 338.615078
-510.000000 -441.590564 337.152967
-510.000000 -442.955201 335.690857
-510.000000 -444.319837 334.228746
-510.000000 -445.684474 332.766635
-510.000000 -447.049110 331.304525
-510.000000 -448.413747 329.842414
-510.000000 -449.778383 328.380304
-510.000000 -451.143020 326.918193
-510.000000 -452.507656 325.456083
-510.000000 -453.872293 323.993972
-510.000000 -455.236929 322.531862
-510.000000 -456.601566 321.069751
-510.000000 -457.966202 319.607641
-510.000000 -459.330839 318.145530
-510.000000 -460.695475 316.683420
-510.000000 -462.060112 315.221309
-510.000000 -463.424748 313.759198
-510.000000 -464.789385 312.297088
-510.000000 -466.154021 310.834977
-510.000000 -467.518658 309.372867
-510.000000 -468.883294 307.910756
-510.000000 -470.247931 306.448646
-510.000000 -471.612567 304.986535
-510.000000 -472.977204 303.524425
-510.000000 -474.341840 302.062314
-510.000000 -475.706477 300.600204
-510.000000 -477.071113 299.138093
-510.000000 -478.435750 297.675983
-510.000000 -479.800386 296.213872
-510.000000 -481.165023 294.751761
-510.000000 -482.529659 293.289651
-510.000000 -483.894296 291.827540
-510.000000 -485.258932 290.365430
-510.000000 -486.623569 288.903319
-510.000000 -487.988205 287.441209
-510.000000 -489.352842 285.979098
-510.000000 -490.717478 284.516988
-510.000000 -492.082115 283.054877
-510.000000 -493.446751 281.592767
-510.000000 -494.811388 280.130656
-510.000000 -496.176024 278.668546
-510.000000 -497.540661 277.206435
-510.000000 -498.905297 275.744325
-510.000000 -500.269934 274.282214
-510.000000 -501.634570 272.820103
-510.000000 -502.999207 271.357993
-510.000000 -504.363843 269.895882
-510.000000 -505.728480 268.433772
-510.000000 -507.093116 266.971661
-510.000000 -508.457753 265.509551
-510.000000 -509.822389 264.047440
-510.000000 -511.187026 262.585330
-510.000000 -512.551662 261.123219
-510.000000 -513.916299 259.661109
-510.000000 -515.280935 258.198998
-510.000000 -516.645572 256.736888
-510.000000 -518.010208 255.274777
-510.000000 -519.374845 253.812666
-510.000000 -520.739481 252.350556
-510.000000 -522.104118 250.888445
-510.000000 -523.468754 249.426335
-510.000000 -524.833391 247.964224
-510.000000 -526.198027 246.502114
-510.000000 -527.562664 245.040003
-510.000000 -528.927300 243.577893
-510.000000 -530.291937 242.115782
-510.000000 -531.656573 240.653672
-510.000000 -533.021210 239.191561
-510.000000 -534.385846 237.729451
-510.000000 -535.750483 236.267340
-510.000000 -537.115119 234.805229
-510.000000 -538.479756 233.343119
-510.000000 -539.844392 231.881008
-510.000000 -541.209029 230.418898
-510.000000 -542.573665 228.956787
-510.000000 -543.938302 227.494677
-510.000000 -545.302938 226.032566
-510.000000 -546.667575 224.570456
-510.000000 -548.032211 223.108345
-510.000000 -549.396848 221.646235
-510.000000 -550.761484 220.184124
-510.000000 -552.126121 218.722014
-510.000000 -553.490757 217.259903
-510.000000 -554.855394 215.797793
-510.000000 -556.220030 214.335682
-510.000000 -557.584667 212.873571
-510.000000 -558.949303 211.411461
-510.000000 -560.313940 209.949350
-510.000000 -561.678576 208.487240
-510.000000 -563.043213 207.025129
-510.000000 -564.407849 205.563019
-510.000000 -565.772486 204.100908
-510.000000 -567.137122 202.638798
-510.000000 -568.501759 201.176687
-510.000000 -569.866395 199.714577
-510.000000 -571.231032 198.252466
-510.000000 -572.595668 196.790356
-510.000000 -573.960305 195.328245
-510.000000 -575.324941 193.866134
-510.000000 -576.689578 192.404024
-510.000000 -578.054214 190.941913
-510.000000 -579.418851 189.479803
-510.000000 -580.783487 188.017692
-510.000000 -582.148124 186.555582
-510.000000 -583.512760 185.093471
-510.000000 -584.877397 183.631361
-510.000000 -586.242033 182.169250
-510.000000 -587.606670 180.707140
-510.000000 -588.971306 179.245029
-510.000000 -590.335943 177.782919
-510.000000 -592.000000 176.000000
-510.000000 -593.109400 174.335899
-510.000000 -594.218801 172.671799
-510.000000 -595.328201 171.007698
-510.000000 -596.437602 169.343598
-510.000000 -597.547002 167.679497
-510.000000 -598.656402 166.015396
-510.000000 -599.765803 164.351296
-510.000000 -600.875203 162.687195
-510.000000 -601.984604 161.023095
-510.000000 -603.094004 159.358994
-510.000000 -604.203404 157.694894
-510.000000 -605.312805 156.030793
-510.000000 -606.422205 154.366692
-510.000000 -607.531605 152.702592
-510.000000 -608.641006 151.038491
-510.000000 -609.750406 149.374391
-510.000000 -610.859807 147.710290
-510.000000 -611.969207 146.046189
-510.000000 -613.078607 144.382089
-510.000000 -614.188008 142.717988
-510.000000 -615.297408 141.053888
-510.000000 -616.406809 139.389787
-510.000000 -617.516209 137.725686
-510.000000 -618.625609 136.061586
-510.000000 -619.735010 134.397485
-510.000000 -620.844410 132.733385
-510.000000 -621.953811 131.069284
-510.000000 -623.063211 129.405184
-510.000000 -624.172611 127.741083
-510.000000 -625.282012 126.076982
-510.000000 -626.391412 124.412882
-510.000000 -627.500813 122.748781
-510.000000 -628.610213 121.084681
-510.000000 -629.719613 119.420580
-510.000000 -630.829014 117.756479
-510.000000 -631.938414 116.092379
-510.000000 -633.047815 114.428278
-510.000000 -634.157215 112.764178
-510.000000 -635.266615 111.100077
-510.000000 -636.376016 109.435976
-510.000000 -637.485416 107.771876
-510.000000 -638.594816 106.107775
-510.000000 -640.000000 104.000000
-510.681509 -640.681509 102.247547
-511.363019 -641.363019 100.495095
-512.044528 -642.044528 98.742642
-512.726037 -642.726037 96.990190
-513.407547 -643.407547 95.237737
-514.089056 -644.089056 93.485285
-514.770565 -644.770565 91.732832
-515.452075 -645.452075 89.980379
-516.133584 -646.133584 88.227927
-516.815093 -646.815093 86.475474
-517.496603 -647.496603 84.723022
-518.178112 -648.178112 82.970569
-518.859621 -648.859621 81.218116
-519.541131 -649.541131 79.465664
-520.222640 -650.222640 77.713211
-520.904149 -650.904149 75.960759
-521.585659 -651.585659 74.208306
-522.267168 -652.267168 72.455854
-522.948677 -652.948677 70.703401
-523.630187 -653.630187 68.950948
-524.311696 -654.311696 67.198496
-524.993205 -654.993205 65.446043
-525.674715 -655.674715 63.693591
-526.356224 -656.356224 61.941138
-527.037733 -657.037733 60.188685
-527.719243 -657.719243 58.436233
-528.400752 -658.400752 56.683780
-529.082261 -659.082261 54.931328
-529.763771 -659.763771 53.178875
-530.445280 -660.445280 51.426423
-531.126789 -661.126789 49.673970
-531.808299 -661.808299 47.921517
-532.489808 -662.489808 46.169065
-533.171317 -663.171317 44.416612
-533.852827 -663.852827 42.664160
-534.534336 -664.534336 40.911707
-535.215845 -665.215845 39.159255
-535.897355 -665.897355 37.406802
-536.578864 -666.578864 35.654349
-537.260373 -667.260373 33.901897
-538.000000 -668.000000 32.000000
-537.551539 -666.953591 30.355643
-537.103078 -665.907182 28.711286
-536.654617 -664.860773 27.066928
-536.206156 -663.814363 25.422571
-535.757695 -662.767954 23.778214
-535.309234 -661.721545 22.133857
-534.860773 -660.675136 20.489500
-534.412312 -659.628727 18.845142
-533.963850 -658.582318 17.200785
-533.515389 -657.535909 15.556428
-533.066928 -656.489500 13.912071
-532.618467 -655.443090 12.267714
-532.170006 -654.396681 10.623356
-531.721545 -653.350272 8.978999
-531.273084 -652.303863 7.334642
-530.824623 -651.257454 5.690285
-530.376162 -650.211045 4.045928
-529.927701 -649.164636 2.401570
-529.479240 -648.118227 0.757213
-529.030779 -647.071817 -0.887144
-528.582318 -646.025408 -2.531501
-528.133857 -644.978999 -4.175858
-527.685396 -643.932590 -5.820216
-527.236935 -642.886181 -7.464573
-526.788474 -641.839772 -9.108930
